ply
format ascii 1.0
element vertex 1272
property float x
property float y
property float z
property uchar red
property uchar green
property uchar blue
end_header
373.807 1653.37 -497.769 255 255 255
-1633.52 3047.45 838.833 255 255 255
-217.079 455.861 105.166 255 255 255
21440.9 25082.2 21541.9 255 255 255
-8292.23 -8497.09 -16047.8 255 255 255
78.2877 -152.716 -272.681 255 255 255
-24698.9 -151.988 -4444.29 255 255 255
38.1474 -61.8778 -19.1096 255 255 255
96.3633 -133.667 -54.0253 255 255 255
-67.4857 -133.776 70.279 255 255 255
-21826.8 16382.9 3154.17 255 255 255
-24494.9 -35666.2 -20618.7 255 255 255
-936.162 1538.03 508.584 255 255 255
230.009 -492.422 -95.1638 255 255 255
812.613 -1370.56 -435.296 255 255 255
1526.59 -1985.23 -895.9 255 255 255
-304.392 717.61 135.566 255 255 255
227.152 -320.619 -128.917 255 255 255
277.247 -382.425 -158.737 255 255 255
5011.49 -2078.96 -3505.89 255 255 255
10506.7 -4427.32 -7331.39 255 255 255
-19731.2 9954.72 13610.7 255 255 255
-140.436 577.11 25.289 255 255 255
3052.42 -3403.39 3882.05 255 255 255
195.779 -317.538 -104.936 255 255 255
-154.268 338.961 72.4675 255 255 255
-16761.4 11426.8 11146.6 255 255 255
-10255.4 8481.84 6619.79 255 255 255
24808.2 -1539.73 6871.46 255 255 255
-4394.18 4061.02 2794.69 255 255 255
-451.219 -248.059 340.292 255 255 255
22.858 -23.0555 -16.581 255 255 255
-112.812 218.928 56.4478 255 255 255
-73.3221 164.027 34.0906 255 255 255
-99.5397 216.977 46.8322 255 255 255
159 -230.41 -89.1966 255 255 255
9131.58 -17601.9 -4620.62 255 255 255
36.9776 708.159 -123.018 255 255 255
-1315.42 2000.38 734.783 255 255 255
-20418 1267.98 -13504.2 255 255 255
-21829.5 1084.26 -16205.9 255 255 255
-243.826 497.701 120.029 255 255 255
-33762.5 3492.14 -999.357 255 255 255
-42.2542 953.189 1024.3 255 255 255
-381.716 4199.84 -254.691 255 255 255
-612.184 -84.4026 421.441 255 255 255
17863.7 16040.9 11563.9 255 255 255
-1121.1 1828.76 609.774 255 255 255
-176.179 313.725 91.7893 255 255 255
9642.55 -13381.7 -5564.92 255 255 255
704.563 -1662.94 -2577.07 255 255 255
82.1752 -8.21582 -72.9877 255 255 255
1543.65 -2375.66 -858.943 255 255 255
-25.1037 402.71 -37.4451 255 255 255
-2167.62 -7216.59 2589.05 255 255 255
-163.184 323.438 80.5921 255 255 255
-5141.43 -19947 -13747.9 255 255 255
-106.258 238.814 48.9514 255 255 255
16652.7 15144.5 8407.52 255 255 255
147.703 617.773 -192.592 255 255 255
19418.9 19155.5 11089.6 255 255 255
-22232.8 11174.2 -1251.73 255 255 255
-22457.7 5430.8 16086.2 255 255 255
467.694 205.564 -19.5485 255 255 255
152.598 53.5422 -18.1705 255 255 255
278.836 9926.42 53495.2 255 255 255
1808.81 3146.82 56118.4 255 255 255
12409.6 -1026.88 -2001.67 255 255 255
-17081 -50129 33246.8 255 255 255
1821.68 2190.93 -169.238 255 255 255
-5986.92 -4681.95 3129.13 255 255 255
3313.16 16691.1 -5835.34 255 255 255
224.287 92.2095 -8.69154 255 255 255
2302.45 -6622.77 1673.88 255 255 255
-31416.4 -26467.5 -9474.82 255 255 255
2576.87 7032.26 -3912.5 255 255 255
3694.54 -5094.02 6649.1 255 255 255
6683.7 -594.11 33837.1 255 255 255
165.63 74.8461 -8.48914 255 255 255
-10097.4 5805.68 -3127.55 255 255 255
-5951.42 -12024.2 23839.2 255 255 255
-26764.1 -22465.5 -7480.53 255 255 255
2424.48 5761.92 28845.6 255 255 255
16.3642 18.0524 -7.24474 255 255 255
-160.49 -15503.6 -81.7236 255 255 255
-6.91638 -0.248858 -0.659843 255 255 255
6904.14 10919.7 471.739 255 255 255
-24174.8 -17884.7 -2577.63 255 255 255
-2353.09 -13580.6 6367.61 255 255 255
-4731.56 -7531.53 -9513.31 255 255 255
202.478 6474.11 38.1797 255 255 255
118.442 141.354 -15.7196 255 255 255
-21754 -10918.7 8676.54 255 255 255
-3019.12 -17249 20834.6 255 255 255
-5782.22 -4676.38 -466.961 255 255 255
1.76653 -197.767 -2.8352 255 255 255
-18068.6 3069.88 27193.1 255 255 255
3994.76 14061.3 -2709.3 255 255 255
111.8 9474.16 -383.292 255 255 255
35.4194 -772.814 -3.69132 255 255 255
-12283.2 -6077.92 5646.18 255 255 255
-6347.79 -12178.7 14197.7 255 255 255
-47.4766 -1464.27 -9.65708 255 255 255
-23647.2 -49050.8 24128.1 255 255 255
-19534.8 7817.85 3375.02 255 255 255
-29.3139 -5.15389 -3.18504 255 255 255
-15282.4 -13825.3 6053.16 255 255 255
-8103 -4129.61 10538.2 255 255 255
15.5643 5.24903 -19.4265 255 255 255
19838.5 6262.66 34855.8 255 255 255
-31669.5 13088.2 44216.4 255 255 255
-29975.6 -41281.7 19607.8 255 255 255
8821.99 1576.03 1640.29 255 255 255
1331.38 5897.71 -4951.94 255 255 255
-2597.21 8709.4 -3059.85 255 255 255
5083.29 15102.5 -6309.28 255 255 255
803.816 7769.85 -3721.76 255 255 255
-11697.4 -9706.52 -2822.09 255 255 255
3726.87 -3730.31 627.813 255 255 255
4367.68 5368.47 -7234.69 255 255 255
-28818.1 -14962.9 10928.3 255 255 255
1073.12 -10510.4 20328.6 255 255 255
608.171 5113.82 -12.7431 255 255 255
540.648 -6697.12 -6.75379 255 255 255
-16777.2 -8047.76 31408.2 255 255 255
-14296.4 -4106.81 2938.78 255 255 255
-22399 -13711.4 4451.16 255 255 255
-4907.93 -10229.8 12745.8 255 255 255
15344.8 15884.6 -232.506 255 255 255
-11465.7 -898.263 35777 255 255 255
4559.13 3985.17 13254.6 255 255 255
3613.25 -17834.4 -103.036 255 255 255
9159.73 -11479.9 -8006.07 255 255 255
-617.657 -7725.09 15.7385 255 255 255
17135.9 20987.9 -2685.36 255 255 255
170.508 1701.62 -4.69476 255 255 255
264.25 -1334.63 -7.02756 255 255 255
110.212 -930.193 -3.07 255 255 255
-4082.84 -1209.48 -4716.07 255 255 255
37144.5 22560 -1098.33 255 255 255
125.839 -1024.24 -3.67509 255 255 255
5.85508 85.0353 -0.879972 255 255 255
5.4231 31.0769 -18.9904 255 255 255
-6.10359 1458.65 -4.57385 255 255 255
-106.77 -64.8918 2.01361 255 255 255
-30418.4 -31349.3 7796.28 255 255 255
24.2608 -191.307 -0.721549 255 255 255
-6.92877 -151.811 -1.02519 255 255 255
-8325.93 -27859.3 20843.9 255 255 255
16.6908 -374.304 -1.79283 255 255 255
11.258 -432.426 -1.53657 255 255 255
72.8519 1054.42 -2.07047 255 255 255
23733.7 -28635.5 -20547.7 255 255 255
-8523.58 -3599.87 38934.2 255 255 255
89.1228 -4117.43 -13.7199 255 255 255
10.5626 -270.118 -1.85616 255 255 255
50.1105 25.6765 -8.30779 255 255 255
14893.4 21989.7 -4892.59 255 255 255
-32306 -36028.2 9400.28 255 255 255
-284.878 -2658.31 6.48092 255 255 255
-209.881 36086.7 -129.251 255 255 255
-12820.3 -16685.7 263.758 255 255 255
30868.3 16229.9 3538.57 255 255 255
271.501 95.9634 -26.0641 255 255 255
-4632.64 10087.8 4730.52 255 255 255
11.1548 -1069.04 -4.3337 255 255 255
378.217 -2693.37 -12.8331 255 255 255
-23112.8 33653.4 88177.3 255 255 255
5.90752 1797.18 -15.2914 255 255 255
155.645 34.8112 -52.1036 255 255 255
-5600.43 -1900.46 43003.9 255 255 255
386.746 1491.5 -10.9097 255 255 255
-110.213 -2830.63 -18.5174 255 255 255
138.826 4747.08 49.1225 255 255 255
-28.7023 -561.889 -5.6981 255 255 255
8917.49 23683.3 -15526.6 255 255 255
22.8791 -4.92551 -27.4312 255 255 255
11.9702 -453.737 -1.6753 255 255 255
-1856.38 -787.895 18.1423 255 255 255
-10297.4 -20164.3 209.937 255 255 255
23536.2 26693.2 -6852.85 255 255 255
4533.21 4867.04 12826.2 255 255 255
-49597.5 -74474.2 21492.9 255 255 255
22151.7 27905 -7079.64 255 255 255
-14098.1 -5645.61 189.066 255 255 255
-21981.4 -71614.7 330.109 255 255 255
-38210.7 58990.1 15674.6 255 255 255
-41548.3 66552.3 13226.1 255 255 255
-11223.2 -32139.7 194.285 255 255 255
4.54455 -406.42 2.20318 255 255 255
14822.2 29265.3 9728.43 255 255 255
-47915.8 52159.9 31505.2 255 255 255
0.646512 82.7095 -0.567454 255 255 255
1542.8 -10025.8 912.887 255 255 255
21709.9 19302.6 328.993 255 255 255
-60674.4 -43602.5 22799.5 255 255 255
-13474.6 -24702.8 -30072.4 255 255 255
17958.2 -30280.9 12161.7 255 255 255
-9615.68 -9914.45 -10939.6 255 255 255
-2135.92 -14187.5 -8621.84 255 255 255
13005 -18011.2 8752.47 255 255 255
-18480.2 -36672.9 -25349.1 255 255 255
8870.1 7301.75 14288.3 255 255 255
-25610.9 -48694.7 -31507.3 255 255 255
13763.4 27086.3 41474.5 255 255 255
11515.8 21708.3 34623.5 255 255 255
-11307.7 -23440.3 -22400.6 255 255 255
-14455.7 -33192.6 -19227.4 255 255 255
22297.4 21605.3 95034.5 255 255 255
16515.2 -31305.1 9907.26 255 255 255
1600.83 -8010.2 -9697.13 255 255 255
15071.3 -38414 10642.7 255 255 255
17586.4 -28267.5 11275.1 255 255 255
-7575.4 -7998.24 -8216.3 255 255 255
20438.9 18167.8 29566.5 255 255 255
29149.9 -17485.3 17336.3 255 255 255
-21847.9 38784.5 -13645 255 255 255
-8768.08 -8907.89 -10263 255 255 255
3714.22 4983.43 -2644.14 255 255 255
36911.3 27130.1 28967 255 255 255
34941.6 -25643.7 29621.4 255 255 255
12002.6 -19188.7 6521.92 255 255 255
20762.4 -24126.9 17511.6 255 255 255
35184 26755.4 39838.8 255 255 255
21673 -36046.9 13824 255 255 255
17108.1 -24242.2 10024.2 255 255 255
14205.3 -23183 8281.03 255 255 255
6699.41 -5115.72 76.9057 255 255 255
30.122 -9204.21 -3721.93 255 255 255
22416.5 18667 25744.1 255 255 255
-47245.4 -21251.4 -25769 255 255 255
30916.7 19633.9 43278 255 255 255
10007.8 -4306.21 5331.12 255 255 255
4101.38 4002.39 5175.21 255 255 255
9156.73 -9028.65 4825.26 255 255 255
12554.4 -12541.5 8011.78 255 255 255
26662 48101.5 52053.4 255 255 255
15455.3 -21076.7 12391.1 255 255 255
28603 24190.5 31175.3 255 255 255
-13110.6 6256.05 -3866.08 255 255 255
-992.713 -10767.9 -10856.2 255 255 255
44005.3 -18879.5 60493.9 255 255 255
51541.8 29865.8 84971.9 255 255 255
-25377.6 -529.121 -3504.26 255 255 255
2355.85 -550.573 -4926.31 255 255 255
-19648.9 19862.6 -10846 255 255 255
-14052.9 7469.17 -4302.57 255 255 255
-7318.56 -8463.4 -6351.33 255 255 255
-12419.7 4225.26 -4202.48 255 255 255
-2777.85 -6127.01 6010.16 255 255 255
-2009.22 -7514.7 -3497.02 255 255 255
-13950 -25663.4 -24046.9 255 255 255
-5858.85 -9267.16 5057.42 255 255 255
24382 21362.8 18601.5 255 255 255
3865.32 -6164.22 4662.88 255 255 255
11390.7 -17958.6 8358.47 255 255 255
-18975.4 6280.07 -4792.14 255 255 255
-23658 -41606.6 -34680.1 255 255 255
-18962.5 -37285.5 -32016.7 255 255 255
28664 -2766.41 31132.9 255 255 255
27247.2 19503.1 29802.5 255 255 255
47637.8 5869.52 46391.5 255 255 255
38073.1 24075 48420.1 255 255 255
40475.8 27285 56658 255 255 255
31508 19986.2 46609.3 255 255 255
463.198 10922 -1414.16 255 255 255
7845.83 -13471.2 5444.16 255 255 255
-56.6322 325.25 2.31618 255 255 255
227.773 51.3923 33.3217 255 255 255
94.8862 45.7987 -12.8647 255 255 255
12804.5 7660.02 -948.014 255 255 255
61.0719 -599.578 -1.31214 255 255 255
-25.3644 -6.66302 1.96456 255 255 255
62.7853 935.166 -2.12806 255 255 255
549.838 -5022 -8.71395 255 255 255
6.49328 -9.05118 -12.3506 255 255 255
-42.0612 92.2072 2.58408 255 255 255
20606.4 23341.7 -5836.28 255 255 255
15.2255 -58.2049 -29.525 255 255 255
-27.43 -83.0059 55.1142 255 255 255
8.70968 -8.19887 -16.4982 255 255 255
-40152.7 -4846.72 24298.7 255 255 255
5.86065 -956.552 2.92123 255 255 255
-10783.5 7406.92 188.779 255 255 255
-2394.78 -27437 57.4932 255 255 255
131.668 61.2146 -11.5596 255 255 255
7.99263 -271.359 -0.792554 255 255 255
-0.989977 -579.837 2.99407 255 255 255
-53449.9 -20934.8 9983.62 255 255 255
-17.4421 4.81514 -3.08734 255 255 255
-18658 -10728.6 263.667 255 255 255
10800 64369.9 -208.685 255 255 255
31885.9 40535.7 -458.914 255 255 255
2355.01 6746.02 -184.71 255 255 255
369.571 5221.31 41.9097 255 255 255
931.032 3278.07 -22.2974 255 255 255
195.655 487.196 -4.98567 255 255 255
36.2962 -947.776 7.3582 255 255 255
-171.753 4773.22 68.1212 255 255 255
-25.3339 -951.476 -10.506 255 255 255
-302.523 -399.256 587.414 255 255 255
3.3489 25.9283 -5.9431 255 255 255
159.035 -599.189 1216.49 255 255 255
-10263.6 -10786.7 208.804 255 255 255
-2447.59 -5303.65 62.0006 255 255 255
0.566093 -304.916 -1.62078 255 255 255
-228.852 -4858.66 -34.1007 255 255 255
3.05071 12.6873 -5.69443 255 255 255
19883.3 69018 -302.638 255 255 255
3200.65 48335.1 -84.9747 255 255 255
2.30911 -372.265 -2.10423 255 255 255
-5.62602 -338.802 -2.03112 255 255 255
79.5559 -8989.12 28.4115 255 255 255
-43.2953 -233.14 79.7206 255 255 255
705.476 6858.98 -12.6183 255 255 255
127.653 1038.97 -3.71251 255 255 255
-1.51412 225.958 -1.17819 255 255 255
-38.1153 -679.368 -6.16944 255 255 255
4.14577 -492.75 -1.72954 255 255 255
-4441.56 33694.6 29855.8 255 255 255
-7573.8 -45330.4 125.08 255 255 255
-45.867 2905.2 -12.3359 255 255 255
1541.22 34036.6 -420.019 255 255 255
686.353 10942.1 -16.7694 255 255 255
-196.972 -3032.62 4.86071 255 255 255
-34430.4 -5874.37 378.823 255 255 255
-1825.84 -9745.98 42.5783 255 255 255
1040.88 4824.73 -25.0935 255 255 255
-4516.74 -1561.55 462.103 255 255 255
4.61711 33.4567 -8.1645 255 255 255
-17214.9 -38318.4 279.595 255 255 255
-19.5515 982.526 -2.77443 255 255 255
7.70383 -710.276 2.5086 255 255 255
-20421.9 -5766.91 -15872.6 255 255 255
-10.929 2788.41 -13.9166 255 255 255
4782.4 8594.24 5980.05 255 255 255
-17.0533 1738.77 -8.94006 255 255 255
-6.85608 218.044 -0.780848 255 255 255
8013.45 55410.5 -155.944 255 255 255
0.662336 1135.15 -7.90509 255 255 255
11.553 -760.965 4.63659 255 255 255
-23.957 2336.78 -14.8173 255 255 255
1.05037 3.21973 -0.948252 255 255 255
2041.11 -42453.7 13307.3 255 255 255
285.543 6022.15 -8.81379 255 255 255
3421.41 -5944.56 -649.966 255 255 255
377.694 -31933.2 169.384 255 255 255
-1.90797 -66.7094 0.587416 255 255 255
-19.8261 877.058 -5.64192 255 255 255
-3.23213 619.688 -4.70177 255 255 255
-37.5905 -3442.37 17.8368 255 255 255
4.62045 69.7222 -0.660145 255 255 255
-19.5816 13.2662 -2.04425 255 255 255
-7.10014 64.0298 -0.402259 255 255 255
2.52201 -5.11833 -0.562559 255 255 255
1.98092 115.738 -1.90842 255 255 255
17.6353 -152.336 -0.456156 255 255 255
28.0742 -59.2456 -10.3417 255 255 255
21.9895 28.9849 -1.94035 255 255 255
4.00848 -17.9746 -0.139122 255 255 255
5484.43 -43596.9 -42.1473 255 255 255
1.66943 -18.9118 -0.0103447 255 255 255
1.66908 535.898 -9.5002 255 255 255
120.197 3159.95 -22.0174 255 255 255
168.926 3037.32 42.8455 255 255 255
-0.739881 25.3029 1.79001 255 255 255
962.054 -15480.2 -53.3178 255 255 255
5395.88 11289 9325.45 255 255 255
4.48892 102.538 -6.8311 255 255 255
-24.2784 1811.6 -4.92779 255 255 255
-9.06896 533.468 -3.13744 255 255 255
3255.16 4133.25 18435.7 255 255 255
5.60383 98.9901 -9.17694 255 255 255
166.042 -811.85 -7.31485 255 255 255
-19491.1 13116.2 -28003.1 255 255 255
-5.47227 3.71306 -0.575832 255 255 255
328.857 2604.82 -5.99726 255 255 255
99.5309 550.122 -8.96468 255 255 255
9.73545 165.878 -0.429982 255 255 255
0.499541 -7.07981 -0.956068 255 255 255
3.77232 614.927 -5.44608 255 255 255
303.464 3398.81 -6.76415 255 255 255
291.226 2431.1 -6.36873 255 255 255
338.694 -82.7223 -7.1994 255 255 255
3.74594 -356.352 -1.21882 255 255 255
-0.436993 -58.3921 -12.0379 255 255 255
0.589543 96.3565 0.532844 255 255 255
23.0001 -367.466 -1.0399 255 255 255
3.98016 -58.3161 -0.149183 255 255 255
-3.45408 1.27258 -0.887449 255 255 255
0.951825 11.4195 -1.43219 255 255 255
0.351366 193.788 -0.867554 255 255 255
-3638.69 5616.63 778.467 255 255 255
1557.5 16602.6 -35.2294 255 255 255
8.04556 -90.3742 -24.7168 255 255 255
858.99 -7616.43 -1784.19 255 255 255
1.79068 -425.886 -1.50888 255 255 255
1.06597 21.4732 -1.77886 255 255 255
245.035 -1358.06 -491.378 255 255 255
-11185 -4933.73 763.796 255 255 255
9183.14 26012.4 -192.452 255 255 255
99.4143 783.571 -2.8583 255 255 255
124.713 -30107.1 102.48 255 255 255
304.247 693.707 -6.73708 255 255 255
-0.557798 -37.4489 0.242318 255 255 255
1.97646 3.1133 -0.328073 255 255 255
734.436 -15253.2 54.7946 255 255 255
1.00162 31.5086 -1.47326 255 255 255
2769.22 10440 9764.29 255 255 255
-95.7517 48.0851 3026.87 255 255 255
0.485184 -23.5607 -4.37497 255 255 255
-256.604 10265.4 4048.4 255 255 255
3.89007 21.7803 -7.19403 255 255 255
-12.7532 -316.348 -4.51296 255 255 255
0.777087 -22.6293 -0.420245 255 255 255
448.44 -14226.8 2838.8 255 255 255
2.01417 -63.3278 0.255739 255 255 255
-5.19748 737.898 -3.9704 255 255 255
0.436893 -27.0627 0.125381 255 255 255
-5.2351 250.373 -0.888732 255 255 255
-1.35648 42.2739 -0.105916 255 255 255
-45375.6 -6249.61 -35457.7 255 255 255
62.3293 2271.18 -16.2896 255 255 255
-8.02661 341.15 20.6304 255 255 255
0.414618 -7.22943 -0.912441 255 255 255
120.651 1304.53 -3.68831 255 255 255
354.509 144.322 -26.5255 255 255 255
-3.00207 356.682 -1.47874 255 255 255
-6.50146 267.14 -0.809511 255 255 255
-6.18206 338.491 -1.24429 255 255 255
-2.06065 50.5758 -0.0787655 255 255 255
-0.709624 775.389 -4.04729 255 255 255
-12.5177 766.372 -3.46367 255 255 255
-20.7912 722.052 -2.51522 255 255 255
2.51933 -7.61418 -0.443843 255 255 255
-4.04725 145.121 -0.5626 255 255 255
-1.12455 48.4895 2.66612 255 255 255
23.534 -50.4726 -9.31788 255 255 255
-3.23424 99.3507 -0.409564 255 255 255
8.7253 526.253 -5.99669 255 255 255
-1.86996 -36.1899 48.2427 255 255 255
0.00495474 2.52988 -0.0389764 255 255 255
5124.1 52513 -94.1188 255 255 255
-91.7948 -431.212 1.99075 255 255 255
-7.14888 221.308 -0.7257 255 255 255
2789.71 13959.8 2174.49 255 255 255
-24.9812 -216.962 -0.926276 255 255 255
-12.9266 295.99 -0.866377 255 255 255
-1.75279 53.6163 -11.6272 255 255 255
-13.346 359.091 -1.35128 255 255 255
-37555.3 10850.7 29974 255 255 255
-5.12287 134.507 -0.512704 255 255 255
5.44501 -62.2827 -9.62971 255 255 255
-46.1237 850.851 -3.18733 255 255 255
-14222.5 7752.8 13319.1 255 255 255
-2.30943 63.0447 -11.716 255 255 255
-1.18492 35.2992 -0.0775868 255 255 255
-0.847527 63.023 2.49517 255 255 255
-1.73987 193.222 -0.77431 255 255 255
15.8411 326.75 -22.094 255 255 255
3.0085 3.31748 -31.3332 255 255 255
121.944 386.435 -39.9986 255 255 255
865.893 9918.94 -16.2977 255 255 255
-78349.1 5328.81 5113.85 255 255 255
-8.8824 218.665 -0.877106 255 255 255
-1.31002 15.1161 9.4411 255 255 255
-7.70249 249.427 -0.924392 255 255 255
-5.1875 -42.2009 -7.66682 255 255 255
752.49 -2498.1 -2.97581 255 255 255
-57475.9 -6288.76 -15263.7 255 255 255
4.01245 324.392 -1.69264 255 255 255
-61850.7 -40594.3 -43754.5 255 255 255
-82678.9 -3963.74 24457.5 255 255 255
-1.79047 145.778 -0.551402 255 255 255
-0.642753 95.0645 -0.38145 255 255 255
8.09452 -24.6754 -44.9856 255 255 255
0.813171 -65.177 -2.45189 255 255 255
-0.474521 24.8085 -0.0648212 255 255 255
-3.28424 138.128 -0.433576 255 255 255
-5.96232 129.921 -0.295335 255 255 255
-2.20534 69.4967 -0.207187 255 255 255
4.64822 7.56114 -42.9598 255 255 255
0.31867 2.77866 -0.804385 255 255 255
5337.64 8346.89 8350.33 255 255 255
-1.05014 23.0082 -4.56637 255 255 255
-1.25639 21.2363 -2.57662 255 255 255
11336.5 -12860.7 4792.23 255 255 255
-55.5209 -271.674 0.190381 255 255 255
3.44621 -50.3958 -5.43165 255 255 255
-19.2961 2473.68 75.1684 255 255 255
-1721.82 -5696.81 548.603 255 255 255
6.47609 253.248 -8.38515 255 255 255
187.897 -287.475 -13.2581 255 255 255
11.0767 -169.314 -0.436242 255 255 255
3.01069 27.4776 -0.851641 255 255 255
-1664.11 -21877 2785.82 255 255 255
-4294.82 -26987.2 -51.7447 255 255 255
6.33699 -132.472 -25.4382 255 255 255
6.89683 -60.7059 -0.15971 255 255 255
0.343406 -5.43268 0.0329753 255 255 255
1507.97 1979.18 -110.19 255 255 255
0.653916 -0.655948 -0.236714 255 255 255
4.49138 -61.6291 -1.26952 255 255 255
12776.9 -18699.4 -763.013 255 255 255
-13.0962 467.019 -1.18617 255 255 255
139.731 -1117.89 -4.17592 255 255 255
38.34 -109.523 -14.3406 255 255 255
-3055.68 -35251.5 182.572 255 255 255
484.376 8249.55 -11.702 255 255 255
8317.82 -7083.77 23801 255 255 255
75.5248 3462.89 -97.2605 255 255 255
4.78465 -37.7107 -0.123899 255 255 255
-27.9421 200.867 0.981692 255 255 255
1.95744 -9.59077 -10.6327 255 255 255
1.64213 71.4737 -0.63456 255 255 255
-1.85156 329.753 8.76977 255 255 255
33.0486 -1174.72 -5.67838 255 255 255
-9.28897 -79.9669 -18.6125 255 255 255
-1.12849 71.5068 -0.245294 255 255 255
-3.79623 -53.3017 -11.8211 255 255 255
1588.21 -5917.38 -5.92849 255 255 255
0.0238249 -11.6366 -0.23814 255 255 255
0.633805 15.5261 -0.968099 255 255 255
5.1902 -18.8737 -0.236368 255 255 255
0.941553 3.21923 -0.0547868 255 255 255
245.468 648.057 -6.42923 255 255 255
-4481.04 -13085.6 1057.45 255 255 255
-459.136 -1306.13 -3348.93 255 255 255
0.599899 -51.3344 -1.94271 255 255 255
-6.26976 138.909 0.273702 255 255 255
4.23159 -48.4037 -8.86977 255 255 255
28.7263 -2995.96 11.3251 255 255 255
-99.3072 5572.48 -18.1505 255 255 255
46.9142 22.6504 -92.6804 255 255 255
-1.35798 178.126 5.38638 255 255 255
-16.7982 5066.9 -21.5449 255 255 255
0.419986 99.1709 0.858548 255 255 255
-198.554 -1647.19 57.3781 255 255 255
251.28 5873.15 -6.11 255 255 255
-2.17773 -737.514 13.5614 255 255 255
-11954.8 -2966.12 14.8008 255 255 255
-0.3287 10.8595 -0.0231984 255 255 255
-0.0402938 -10.3127 -0.125474 255 255 255
782.686 -10844.6 -24.8314 255 255 255
0.240197 -61.9207 -1.43617 255 255 255
2.80153 -38.7802 -0.135499 255 255 255
113.73 1102.78 -2.26214 255 255 255
-0.488094 15.9446 -0.526049 255 255 255
-21.2799 679.55 -1.91541 255 255 255
-1887.37 16099 52.2255 255 255 255
-6.11286 422.732 -1.59284 255 255 255
-103.009 3161.1 247.878 255 255 255
25.1898 2348.31 -12.0768 255 255 255
1.26927 -31.1733 -0.0915741 255 255 255
1.988 -1307.43 5.59418 255 255 255
-327.818 4177.2 2.88439 255 255 255
11.873 491.779 -10.6834 255 255 255
12.4526 818.631 -6.0751 255 255 255
-6.07324 115.375 -0.291579 255 255 255
-0.331668 7.06083 0.0115483 255 255 255
251.406 -8254.89 -610.889 255 255 255
-814.374 13837.7 1869.53 255 255 255
-4.27641 310.399 0.861529 255 255 255
-3.40337 521.378 14.7111 255 255 255
-14.8902 -1399.63 2.84584 255 255 255
-0.256082 20.2564 -6.04159 255 255 255
-1.8372 39.1109 -0.127339 255 255 255
-0.0208806 -3.01793 -0.0154222 255 255 255
-0.841065 43.6038 1.94166 255 255 255
-6.73999 196.897 -0.702867 255 255 255
-6.53322 157.374 -0.488573 255 255 255
-5.82445 187.503 -0.629084 255 255 255
-6.98999 193.161 -0.553656 255 255 255
-0.037345 1087.1 -5.75937 255 255 255
1.79183 -265.259 -7.25978 255 255 255
6.42664 -120.397 -21.6705 255 255 255
-0.949928 54.6409 -0.172643 255 255 255
-2.10376 107.369 -0.373375 255 255 255
152.331 -28.3544 -10.7719 255 255 255
-3.84265 2551.6 -11.0963 255 255 255
8654.8 -14389.1 5006.52 255 255 255
-2.32904 -330.624 1.60597 255 255 255
23.8817 -887.104 2.38368 255 255 255
-9.3516 901.792 -477.512 255 255 255
2.19048 -119.459 -0.495125 255 255 255
13.6469 2365.21 -1.06254 255 255 255
-4.18768 7.07567 1.49072 255 255 255
8.17092 -3492.7 15.0892 255 255 255
-5.71902 174.834 -0.565712 255 255 255
-122.295 -19195.3 93.8376 255 255 255
2.96166 -117.013 0.301088 255 255 255
-7.30296 214.573 -0.809466 255 255 255
-78.3084 2246.72 -8.98104 255 255 255
-18.9764 -5.92666 -5.32879 255 255 255
-2.00116 -197.929 0.132989 255 255 255
0.960041 65.2005 -0.598509 255 255 255
-5.71274 106.014 -0.484867 255 255 255
34.77 1101.35 -1125.36 255 255 255
-455.526 7197.32 37.5936 255 255 255
63.0722 -1075.13 -1.86893 255 255 255
-328.881 -34.9524 3587.63 255 255 255
2.00736 41.4007 -30.6755 255 255 255
-2.96801 60.8773 -0.195182 255 255 255
87.3993 1732.26 -15.3958 255 255 255
-1.01925 34.0543 -0.0474726 255 255 255
1.07568 81.8108 -0.439762 255 255 255
1.19984 77.9662 -0.453645 255 255 255
-0.985673 6.25295 -3.18455 255 255 255
24.8375 9.7016 -17.7848 255 255 255
-4.91362 158.766 -0.58616 255 255 255
0.729895 48.2353 -0.293568 255 255 255
6.50318 -80.4906 -11.8655 255 255 255
-4.29204 160.265 -0.489342 255 255 255
-9.02716 263.754 -0.695332 255 255 255
-13.7162 1538.92 -6.26887 255 255 255
0.25531 -76.8596 0.365514 255 255 255
0.391073 -74.168 0.345053 255 255 255
0.698736 -94.4276 0.414703 255 255 255
0.167615 -48.0092 0.235679 255 255 255
1.26053 -118.516 0.492555 255 255 255
8.99036 -74.2142 -48.1404 255 255 255
1224.06 -11023.1 3458.56 255 255 255
-8.89853 -2441.1 -21.5688 255 255 255
6.72929 57.6807 -11.7906 255 255 255
-1.57046 31.5302 -4.46276 255 255 255
1.28596 -36.1133 0.171327 255 255 255
-1.16426 34.6576 -5.70017 255 255 255
0.743249 -2.39721 -0.401204 255 255 255
-5.22043 265.892 -1.60787 255 255 255
0.766199 20.3015 -0.954359 255 255 255
-1.29295 21.3183 -2.36959 255 255 255
-1.74855 317.615 8.37187 255 255 255
10549.7 2157.75 9446.84 255 255 255
7.07945 7.41491 -36.112 255 255 255
266.405 5168.65 -40.6125 255 255 255
-20.8095 1664.37 67.853 255 255 255
-2599.08 20301.9 -3857.78 255 255 255
-73.8569 -1796.43 12.908 255 255 255
-14079.5 5535.36 -15738.6 255 255 255
6.47665 -36.7693 -44.1185 255 255 255
6.50853 -31.3611 -48.4257 255 255 255
-3.47281 164.624 -0.540531 255 255 255
-1.51978 40.3826 -8.47852 255 255 255
1.3434 95.4466 -0.54799 255 255 255
-11.4514 210.907 -0.491997 255 255 255
-1.39931 29.741 -4.94978 255 255 255
0.0700031 -5.19402 -0.218689 255 255 255
-3.33442 70.4468 -0.391584 255 255 255
-0.226378 18.5548 -5.22282 255 255 255
-3.22908 63.0289 -0.296885 255 255 255
-58.1379 -5322.9 27.5644 255 255 255
-0.388016 12.5108 2.2485 255 255 255
12.3957 273.714 -15.8696 255 255 255
5.33792 -37.6637 -8.76102 255 255 255
14.0479 -23.1906 -4.96697 255 255 255
-24398.3 16292.5 66685.6 255 255 255
7379.99 47520.8 88541.4 255 255 255
86.4026 1393.12 -5.13396 255 255 255
-0.946864 23.5883 -0.125362 255 255 255
-132.817 1028.4 268.677 255 255 255
49.6894 -723.835 -0.509043 255 255 255
-4521.91 54402.8 56.3848 255 255 255
1.5838 -22.2452 -0.416393 255 255 255
45.0875 -484.271 -0.638763 255 255 255
-0.258857 6.39149 0.58889 255 255 255
4833.2 74974.1 -82.1588 255 255 255
-1041.72 -10402.5 23.4353 255 255 255
5.62006 17.3941 -10.4499 255 255 255
-0.250955 5.74912 0.565221 255 255 255
271.94 28489.8 -219.123 255 255 255
3116.85 -40522.2 -196.275 255 255 255
-6.86674 270.428 -0.69268 255 255 255
-747.408 6804.34 1532.09 255 255 255
4291.29 -61653.5 -147.309 255 255 255
1.9335 2.24577 -3.66892 255 255 255
1.85303 -3.48532 -3.62193 255 255 255
3.1159 2.81481 -5.90881 255 255 255
10.2959 -112.97 -0.132684 255 255 255
0.349147 5.85832 -0.570804 255 255 255
45.2309 1034.92 -68.8867 255 255 255
58.4991 -367.469 -0.671462 255 255 255
0.930625 24.4314 -1.43736 255 255 255
-348.871 4537.06 4.37619 255 255 255
-2279.76 4216.67 41.9898 255 255 255
12.7003 994.343 -4.43788 255 255 255
5.09591 -278.407 -1.15465 255 255 255
46.2003 -595.306 -0.68469 255 255 255
10.7365 785.011 -4.37121 255 255 255
2.8192 26.3371 -0.794222 255 255 255
20.8031 -327.218 -1.44498 255 255 255
-139.364 -653.355 3.53897 255 255 255
11.3103 580.418 -5.25094 255 255 255
-8208.12 -59272.3 130.017 255 255 255
-3.23071 119.829 -0.342012 255 255 255
-7.60173 216.649 -0.689303 255 255 255
1.51676 -18.1607 -2.85946 255 255 255
-35.7289 -2501.31 13.6592 255 255 255
-0.885597 24.8772 -0.061703 255 255 255
-19.6666 425.813 -1.20959 255 255 255
2.03352 -49.5483 0.168465 255 255 255
-0.676893 -42.6537 0.412758 255 255 255
-0.261735 -15.3964 0.138436 255 255 255
1.51239 -33.428 0.130989 255 255 255
30693.3 79796.3 -480.163 255 255 255
3.44668 -69.1062 0.15252 255 255 255
137.711 1720.45 -6.82798 255 255 255
12.9118 1072.03 -4.00704 255 255 255
-1.52564 91.4193 4.14577 255 255 255
16.3594 1267.14 -5.75517 255 255 255
-1.88596 56.6157 -0.143156 255 255 255
-3.08156 93.6945 -0.331776 255 255 255
-5.55603 140.693 -0.534887 255 255 255
9.82267 147.793 -16.158 255 255 255
-27.4451 969.812 -2.34621 255 255 255
0.984478 78.051 -0.383662 255 255 255
-2.27041 72.7892 -0.163201 255 255 255
7.6008 71.4378 -0.168507 255 255 255
1701.4 -23003.2 -3623.32 255 255 255
19.897 -346.279 -42.9949 255 255 255
-1545.86 22081 -14577.9 255 255 255
-1.32849 -98.2474 0.980346 255 255 255
0.559917 2.34549 -1.09173 255 255 255
9.73551 198.118 -15.2466 255 255 255
123.94 -962.976 -0.801482 255 255 255
25.862 -34.5 -0.457624 255 255 255
5.32896 -6.44703 -0.0243979 255 255 255
-0.212311 20.6608 -6.71552 255 255 255
174.1 862.586 2.20085 255 255 255
0.381652 -20.1797 13.3767 255 255 255
-109.161 941.536 0.39041 255 255 255
77.244 -851.622 -0.180904 255 255 255
8.82274 -96.6786 -19.0788 255 255 255
0.0456422 -8.12835 -0.215719 255 255 255
395.321 2580.42 -1.8219 255 255 255
0.842287 -110.545 -3.356 255 255 255
-0.604099 21.6103 -2.81842 255 255 255
0.142064 123.827 1.75996 255 255 255
1.61983 41.2204 -2.50296 255 255 255
-492.005 9044.21 1077.23 255 255 255
-1.89511 42.8036 -2.73287 255 255 255
1.01075 -6.803 -2.09475 255 255 255
8.78604 -57.0818 -9.53456 255 255 255
-14.1912 509.896 35.7576 255 255 255
8.11856 603.9 -6.5001 255 255 255
-3.36902 -78.1909 -16.8105 255 255 255
13.4377 -111.908 -0.161597 255 255 255
208.175 -4161.34 433.57 255 255 255
9078.29 47613.4 -35.1204 255 255 255
0.745332 -9.69606 -0.0120618 255 255 255
0.695706 -58.0621 -2.23055 255 255 255
5.43742 123.713 -135.797 255 255 255
2.30821 -41.9899 -5.07729 255 255 255
5.02007 -74.4799 -0.0909709 255 255 255
-0.645671 152.034 -2.08419 255 255 255
0.481417 -5.41463 -1.00327 255 255 255
0.468997 -5.39378 -0.999703 255 255 255
0.487315 -4.23109 -1.007 255 255 255
0.424638 1.47341 -1.10333 255 255 255
0.436426 -3.61004 -0.875961 255 255 255
0.405641 -4.24825 -0.829183 255 255 255
1.84533 679.506 213.228 255 255 255
-752.047 -765.685 2.50721 255 255 255
-4.43307 95.951 -0.184778 255 255 255
-4.2921 83.5903 -0.209391 255 255 255
-34.4873 616.328 -1.91093 255 255 255
-964.777 1159.61 4.84875 255 255 255
3.98874 -5.06553 -0.0718922 255 255 255
4.54365 -212.121 -11.9175 255 255 255
65.6002 -3407.14 -179.317 255 255 255
1.90923 -153.316 -6.03049 255 255 255
-7.8651 1118.13 32.4963 255 255 255
0.972962 -14.8825 -0.016208 255 255 255
-12.0874 222.8 -0.429654 255 255 255
-8.30632 152.931 -0.445132 255 255 255
0.0324533 196.728 3.10213 255 255 255
1.24027 16.7324 -2.14472 255 255 255
0.421302 1.23243 -0.877291 255 255 255
-2.94527 -52.653 -12.8922 255 255 255
-17.0384 302.259 -1.68563 255 255 255
-24.706 -37.4719 -16.9451 255 255 255
-8.78574 161.949 -0.297973 255 255 255
-0.0234239 34.4909 -18.1799 255 255 255
1.8915 12.8806 -3.4825 255 255 255
-6.30809 -68.1676 -15.5022 255 255 255
-0.481264 7.06368 5.49371 255 255 255
2.00434 -19.7351 -4.5514 255 255 255
3.36608 -1.89052 0.136574 255 255 255
-265.078 695.228 431.207 255 255 255
121.345 3639.16 1421.87 255 255 255
-1.41186 27.7635 -4.03079 255 255 255
-0.938681 28.7999 -4.2965 255 255 255
31.7255 949.74 -51.486 255 255 255
-1.64044 20.7164 -0.0611486 255 255 255
3.02792 -68.9729 0.226052 255 255 255
-0.0561 1.88324 2.01258 255 255 255
-2.22077 46.5833 -6.06638 255 255 255
-0.971789 137.04 1.34036 255 255 255
-1.237 18.5967 -1.86147 255 255 255
-0.030275 19.7452 0.351135 255 255 255
-0.373594 -24.6785 0.101312 255 255 255
119.683 -4510.3 -302.112 255 255 255
-0.731853 167.998 1.54899 255 255 255
-23524.7 175232 116.51 255 255 255
22.571 5905.01 50.1373 255 255 255
7.59353 -12.4834 -13.3455 255 255 255
5.84747 -65.7019 -17.3388 255 255 255
0.291174 -2.04048 -0.519806 255 255 255
-7.84684 174.69 -0.335107 255 255 255
-1.39711 16.4671 -0.0895301 255 255 255
-121.272 3332.96 -431.374 255 255 255
-0.381852 -24.9405 0.112162 255 255 255
3.94383 -87.6396 0.230848 255 255 255
-9.73379 23.2702 -0.410564 255 255 255
-6.65473 135.47 -0.361464 255 255 255
0.0498699 1.7379 -0.0670722 255 255 255
-0.0467507 -1.97148 0.0432488 255 255 255
0.233016 -48.3141 -1.04064 255 255 255
-6.46265 -13.9721 2.08457 255 255 255
4.38374 -18.6687 -32.6074 255 255 255
6.08855 42.6704 9.07503 255 255 255
-0.998511 32.8859 -8.5579 255 255 255
-0.175227 -0.595453 -0.25926 255 255 255
-0.472307 1.99733 -0.00699225 255 255 255
-0.655131 26.534 -8.29922 255 255 255
-1.22571 32.9179 -7.08983 255 255 255
-14.085 -1.88675 -3.68127 255 255 255
2.70104 -29.2929 -5.88058 255 255 255
-11.3223 1583.65 46.3735 255 255 255
-2.93947 58.9783 -0.181976 255 255 255
3.43402 57.4118 -0.0313148 255 255 255
74.8328 1047.82 -0.58029 255 255 255
6.9769 -665.573 -24.7373 255 255 255
-1.11022 18.0225 -2.36598 255 255 255
5.80182 -73.347 -10.3312 255 255 255
-4.05523 79.1935 -0.212602 255 255 255
-1.21337 27.465 -0.0905974 255 255 255
-1.25207 34.4917 -7.80842 255 255 255
-2.48432 55.5908 -0.124309 255 255 255
0.11417 -3.38923 -0.624309 255 255 255
-1.98746 26.0553 -0.0658791 255 255 255
-0.990567 98.7778 3.31934 255 255 255
8.19579 676.423 -2.42754 255 255 255
14.5983 4.77485 -25.1068 255 255 255
10.4136 303.321 -13.0764 255 255 255
15.5405 91.0152 -25.5306 255 255 255
8382.97 1705.39 -14195.3 255 255 255
-154.4 -6464.14 191.047 255 255 255
-1173.73 16365.2 2211.71 255 255 255
-2.4788 50.4034 -0.182247 255 255 255
0.766237 -2.85238 -2.07601 255 255 255
0.0819927 31.6705 -0.0119373 255 255 255
-81.1851 -4828.14 76.6248 255 255 255
-2.24767 177.975 1.96955 255 255 255
-1.1958 25.1991 -4.43393 255 255 255
0.771004 33.2127 -0.763242 255 255 255
21.072 -41.8529 -10.5832 255 255 255
0.731493 33.4826 -0.686308 255 255 255
-2537.95 42241.1 17580.8 255 255 255
440.692 517.435 -1.55418 255 255 255
5.85826 -225.31 -3.73524 255 255 255
-5.22588 115.704 -0.196667 255 255 255
0.640636 1897.6 26.5068 255 255 255
-6.49928 146.854 -0.257303 255 255 255
-7.19213 157.333 -0.286355 255 255 255
0.755565 -163.629 -3.86906 255 255 255
-5.78851 118.44 -0.286433 255 255 255
-5.14668 102.479 -0.276214 255 255 255
-5.18259 99.3461 -0.237003 255 255 255
-5.41441 104.934 -0.272599 255 255 255
339.573 -16420.7 2019.77 255 255 255
-3.38992 -37.7716 5.78514 255 255 255
-6.95373 137.692 -0.291599 255 255 255
-2.13444 44.269 -0.212261 255 255 255
-7.13594 131.943 -0.252333 255 255 255
-4.91324 92.5949 -0.283668 255 255 255
-3.34304 66.2582 -0.263492 255 255 255
-1.80657 38.479 -0.194979 255 255 255
-4.6801 91.1164 -0.277804 255 255 255
-3.46434 74.2681 7.70041 255 255 255
-0.562668 -43.0237 0.0180119 255 255 255
-9.31465 185.334 -0.325731 255 255 255
5070.44 38486.5 -106.873 255 255 255
-191.547 2245.64 1.66702 255 255 255
449.484 3403.24 10737.8 255 255 255
0.570151 113.537 20.3031 255 255 255
-63962.7 -27594.9 241.217 255 255 255
27.7893 -329.402 -0.0568055 255 255 255
-34581 -111630 111.425 255 255 255
-2462.84 -9394.92 -2275.46 255 255 255
-0.871923 109.466 -37.6568 255 255 255
-0.453687 -15.5587 -0.088649 255 255 255
-6958.34 28393.4 8549.65 255 255 255
3170.31 -25513.3 -19.5729 255 255 255
-22.9901 -108.083 -27.6162 255 255 255
471.131 -390.16 -8.90089 255 255 255
38.6027 507.227 -10.1408 255 255 255
6.00275 21.2759 0.0841833 255 255 255
106.711 -1317.55 -2.37346 255 255 255
-3254.87 26882.9 13.2122 255 255 255
137.183 -172.865 -1.87051 255 255 255
-8025.1 29286.1 -11401.3 255 255 255
-243.09 2274.4 1186.07 255 255 255
-361.784 23255.8 18338.2 255 255 255
85.2639 -149.254 -9.75012 255 255 255
871.161 -11113.4 -24.1494 255 255 255
14075 -63053.4 -68.2407 255 255 255
3705.67 -53454.1 -44.0991 255 255 255
-155.635 3462.72 671.028 255 255 255
-514.494 654.19 8.70123 255 255 255
-54.573 1328.81 -1.48553 255 255 255
524.6 -676.166 2944.25 255 255 255
-19.4421 -4.3289 -5.62188 255 255 255
-8.92427 -94.5844 -21.5051 255 255 255
-87.0032 2219.38 -4.19074 255 255 255
311.854 -3165.41 -6.34116 255 255 255
46.9404 -140.366 -17.6291 255 255 255
22.5756 -3.88571 -8.01685 255 255 255
24882.4 84210.7 -71.148 255 255 255
17583.6 72775 -59.6044 255 255 255
51.0242 -149.529 -19.1647 255 255 255
-224.459 3877.48 108.993 255 255 255
859.07 10632.5 2386.39 255 255 255
286.474 -5082.08 -140.251 255 255 255
-28.1042 -24.7968 -11.9129 255 255 255
6.37695 -96.3947 -0.116014 255 255 255
5.10058 -158.014 -31.0925 255 255 255
0.577718 -1.60449 -0.201931 255 255 255
461.366 5235.92 -2.99854 255 255 255
-3.03882 63.2039 -3.45978 255 255 255
-87.7252 1733.74 -3.31801 255 255 255
3.42733 319.728 -241.424 255 255 255
0.387078 55.9168 -37.6295 255 255 255
-44.375 789.941 -2.45334 255 255 255
0.258245 50.0497 -22.7053 255 255 255
3.54102 82.7465 -91.1732 255 255 255
5.9576 12.3255 -78.3886 255 255 255
36.2369 -83.818 -13.4426 255 255 255
21.1462 -312.813 -0.302971 255 255 255
30.7863 -492.542 -0.504239 255 255 255
31.5335 -503.716 -0.432482 255 255 255
-130.434 2951.55 -487.452 255 255 255
32.8241 -524.046 -1.37101 255 255 255
-55.5173 979.08 -2.83323 255 255 255
-122.481 -1694.86 31.7856 255 255 255
-7798.81 -2014.44 2147.47 255 255 255
-2.80315 131.24 -33.448 255 255 255
-3449.42 53757.5 87.7867 255 255 255
56.8036 -947.528 -1.27317 255 255 255
43.6763 -104.039 -16.2123 255 255 255
10.116 -974.978 -1.79629 255 255 255
18.5867 -32.3027 -12.3986 255 255 255
4814.33 13411.9 66.2603 255 255 255
1.62167 -13.5957 -0.0205539 255 255 255
2822.32 2911.33 -9.54518 255 255 255
17.8219 -33.3834 -3.10996 255 255 255
110.832 -1150.34 -270.98 255 255 255
18.6085 -30.4596 -13.4919 255 255 255
-37.572 867.753 -4.30508 255 255 255
20.8226 -33.9063 -15.1102 255 255 255
40.9816 -116.028 -15.6914 255 255 255
18.8724 -29.5107 -14.5482 255 255 255
20.3797 8.52627 -15.9463 255 255 255
-66.1672 1286.1 -3.85691 255 255 255
57.7887 -549.985 -276.467 255 255 255
-27.7537 70.0681 -1.40982 255 255 255
0.391772 27.7414 -18.2435 255 255 255
-9.74289 22.0535 1.66227 255 255 255
515.146 3695.41 -149.271 255 255 255
667.563 9418.39 -5.22344 255 255 255
19.0638 -36.3318 -10.7258 255 255 255
84.5923 -160.218 -12.2557 255 255 255
-503.446 31192.6 69.8377 255 255 255
2360 -4921.05 6518.39 255 255 255
-84.2266 1520.53 -2.64367 255 255 255
60.2742 -1636.66 3.42328 255 255 255
-6.82072 38.7967 -14.8629 255 255 255
-0.534013 17.1481 -0.808999 255 255 255
-2.38593 41.6187 -3.40203 255 255 255
-66.4924 1174.24 -2.41327 255 255 255
0.38438 54.6617 -37.4183 255 255 255
0.441248 41.3515 -28.7292 255 255 255
19.8899 -40.0669 -9.65949 255 255 255
-15.7159 302.839 -0.718977 255 255 255
19.259 9.29099 -26.3146 255 255 255
-98.9057 2279.03 48.1359 255 255 255
-4.64235 94.7083 -0.299608 255 255 255
102.598 -1321.82 -151.591 255 255 255
-1546.84 -7472.55 -39.9265 255 255 255
-10.8826 196.319 -0.476346 255 255 255
-7.40197 154.935 -0.549233 255 255 255
15.3858 -24.6229 -11.6687 255 255 255
0.451581 55.9614 -39.304 255 255 255
1.44609 31.2269 -23.1834 255 255 255
2.27277 546.348 3.45156 255 255 255
0.31826 42.4019 -20.2452 255 255 255
-18.9595 336.423 -1.57057 255 255 255
4.96104 -65.8701 -0.081146 255 255 255
0.472741 37.8332 -26.242 255 255 255
0.459273 39.5249 -27.8953 255 255 255
-18.963 407.625 -0.710503 255 255 255
-22.4466 533.672 -0.94196 255 255 255
2.77849 50.6531 -38.583 255 255 255
3676.44 145.623 8606.41 255 255 255
253.99 -8902.13 3011.62 255 255 255
-17.4066 837.983 -5.69208 255 255 255
28008.9 120846 417.562 255 255 255
-11.4906 41.8993 -7.69434 255 255 255
0.372967 25.6865 -17.7058 255 255 255
-6.80845 -11.1792 17.7392 255 255 255
-1.25367 28.1005 -0.0803187 255 255 255
0.397383 47.6811 -32.552 255 255 255
-2.88926 68.416 -8.70525 255 255 255
19.8872 -11.5886 -27.6005 255 255 255
0.45122 27.026 -19.1372 255 255 255
-26.4657 67.9603 -1.14314 255 255 255
-22.1678 56.8861 -1.31768 255 255 255
-9.78034 45.1861 -13.8749 255 255 255
-10.3211 40.0413 -10.0693 255 255 255
-33.6689 650.185 -1.10568 255 255 255
-13.2712 330.896 -0.583318 255 255 255
-13317.8 -12362.9 -6130.79 255 255 255
-6.8873 21.8325 -2.92329 255 255 255
-11.2414 186.303 -1.06259 255 255 255
-14.8524 265.683 -2.02601 255 255 255
-18.578 47.1831 -1.57352 255 255 255
-0.187765 -0.250069 -0.0282714 255 255 255
-3.28313 1.37377 -0.2267 255 255 255
4.41759 -37.7582 -8.13571 255 255 255
-7393.99 1182.69 1601.22 255 255 255
90.9933 -200.148 3.99748 255 255 255
18.048 18.0739 6.96645 255 255 255
38.251 604.391 -0.33519 255 255 255
-146.994 -1671.41 0.964108 255 255 255
8065.58 18013.5 -32.6978 255 255 255
17.4746 -13.1 -22.8839 255 255 255
21.6364 -14.1996 -29.504 255 255 255
-1.41186 820.011 6.64042 255 255 255
26.1736 -51.1839 -13.4227 255 255 255
-33.3146 84.5357 -1.36982 255 255 255
8.93528 -22.5357 -49.7086 255 255 255
0.509713 21.2773 -15.5674 255 255 255
-64.36 1292.35 -3.51863 255 255 255
-269.289 -149.116 -92.1488 255 255 255
-9.31056 239.245 -46.9817 255 255 255
12.3742 -17.19 -4.36411 255 255 255
11.4303 4.48674 2.67314 255 255 255
26.1516 -53.0077 -6.82035 255 255 255
25.9967 -47.7263 -4.57803 255 255 255
5330.51 -9069.13 5757.26 255 255 255
-171.193 -51643.2 -10839.7 255 255 255
3.5326 90.9699 -97.9148 255 255 255
0.430153 2.16614 -0.318644 255 255 255
11.9527 -12.1929 -4.19489 255 255 255
28.5319 -45.1455 -21.1933 255 255 255
-1358.99 2046.92 -20.8518 255 255 255
5356.96 34050.3 -21.7409 255 255 255
17.5891 -66.8021 -8.58772 255 255 255
1.13798 18.0822 -20.1303 255 255 255
17.7995 -75.9561 -10.1685 255 255 255
-14.289 35.8461 -0.871394 255 255 255
-35.2988 1044.66 -297.102 255 255 255
106.711 761.258 -2.19241 255 255 255
-49.3827 66.8788 0.298566 255 255 255
79.4281 -134.652 -8.21797 255 255 255
21.7453 -44.4529 -10.0786 255 255 255
128.379 -243.986 -18.4851 255 255 255
527.091 7879.59 -5.091 255 255 255
-44.2102 1681.21 -10.8675 255 255 255
46.5724 -96.4485 -8.70106 255 255 255
1839.29 -2347.47 -31.3877 255 255 255
65.8556 -121.243 -24.192 255 255 255
-681.86 2875.29 9.17489 255 255 255
62.9487 -130.482 -23.2266 255 255 255
55.8033 1240.2 -7.64558 255 255 255
9654.99 1326.52 -3391.34 255 255 255
-5961.08 50601.7 21.8934 255 255 255
-6.05195 6.09858 -0.2142 255 255 255
-15886.4 77511.2 110.349 255 255 255
-1555.46 2488.46 130.349 255 255 255
32.9625 183.779 -10.206 255 255 255
-4596.9 35531.3 22.2782 255 255 255
-26.1267 11.406 -4.02715 255 255 255
14.8411 -16.775 0.175107 255 255 255
38.7334 -108.896 -14.491 255 255 255
10.6903 -590.947 -1.24876 255 255 255
-63.1715 407.381 68.0357 255 255 255
40.055 -63.2557 -14.6552 255 255 255
39.9882 -50.9297 -0.787332 255 255 255
38.4218 -72.5558 -5.5197 255 255 255
-5.00013 3.152 -0.575784 255 255 255
93.151 -148.805 -7.78814 255 255 255
14.5617 -54.6601 -6.86765 255 255 255
149.176 230.181 -50.7899 255 255 255
155.728 -247.44 -12.8847 255 255 255
57.2497 -126.756 -11.9917 255 255 255
41.1339 -80.1223 -6.38643 255 255 255
546.421 8517.81 -4.86799 255 255 255
-13477.1 -75491.1 49.8413 255 255 255
185.798 801.602 -0.638983 255 255 255
1574.25 -1895.88 -7.33072 255 255 255
2.94382 -658.235 -3.49632 255 255 255
49.0592 -99.8769 -8.53761 255 255 255
23.8088 -38.8055 -2.19388 255 255 255
2.89046 -8.71131 -0.0602703 255 255 255
50.9144 -87.2889 -5.50838 255 255 255
46.6533 -80.7591 -5.18524 255 255 255
66.3703 -132.609 -11.0361 255 255 255
59.0618 -172.34 -22.1357 255 255 255
3.34002 -3.32127 -1.20842 255 255 255
-22.345 57.0981 -1.1675 255 255 255
-11.065 50.5942 -15.1472 255 255 255
-78.3684 1563.9 -2.98362 255 255 255
20.8113 -42.9759 -9.43598 255 255 255
-101.106 1573.22 -5.1246 255 255 255
12.8101 -27.7205 -5.33656 255 255 255
16.9822 -49.9537 -6.48849 255 255 255
13.2099 -15.5109 -4.67087 255 255 255
1.29727 -3.83144 -0.523757 255 255 255
-1.32532 26.3153 0.0288781 255 255 255
3.13446 -1.8683 0.374491 255 255 255
1.95702 -33.0565 -0.0278868 255 255 255
1.8936 -38.7613 -0.0565062 255 255 255
3.94523 -5.61239 -0.195497 255 255 255
1.77852 -24.9897 -0.0140187 255 255 255
26.7518 -46.2711 -18.6618 255 255 255
-92.1058 1429.88 -3.01065 255 255 255
-1.25253 21.9613 -0.0623966 255 255 255
7.51889 122.371 -1.82513 255 255 255
-5.56372 112.076 -9.13495 255 255 255
-277.906 364.516 -13.0963 255 255 255
-209.334 1128.64 180.016 255 255 255
-4638.54 56905.4 89.8392 255 255 255
19.6058 -33.6749 -2.13599 255 255 255
21.8412 -398.867 -0.521455 255 255 255
6421.94 100106 -59.1366 255 255 255
-71.8733 31.9765 -10.9273 255 255 255
37.5413 -641.773 -1.42449 255 255 255
17.4823 -30.8789 -11.309 255 255 255
19.1425 -25.8806 -6.64539 255 255 255
312.946 -773.31 11.378 255 255 255
-2.11624 37.235 -0.105245 255 255 255
46.4204 -64.8202 -2.83087 255 255 255
-3.9703 80.3222 -0.281032 255 255 255
-3.50337 64.0412 -0.155331 255 255 255
-7.58094 142.146 -0.302732 255 255 255
-6.89045 128.261 -0.230056 255 255 255
818.793 11557.5 -6.40983 255 255 255
16.1437 -62.2081 -11.0472 255 255 255
23.7475 -240.57 -0.0691871 255 255 255
-2.04097 54.0337 0.0343395 255 255 255
-3.46227 64.804 -0.110742 255 255 255
-13.398 338.925 -0.668048 255 255 255
-19.5384 50.1146 -2.91042 255 255 255
-8.38588 27.8783 -5.07595 255 255 255
-14.4584 37.5602 -1.60313 255 255 255
-58.9434 1103.31 -2.05421 255 255 255
22.4847 -45.0605 -11.0006 255 255 255
-18.2234 272.357 -0.604795 255 255 255
-36.7783 615.367 -1.5376 255 255 255
17.3292 -35.2409 -8.37744 255 255 255
-34.9722 686.733 -2.08191 255 255 255
-4.59323 92.8474 -0.251824 255 255 255
-5.30703 95.8813 -0.200144 255 255 255
-1.75604 28.9366 0.804587 255 255 255
-44.7365 111.945 -1.65418 255 255 255
-5.89581 108.567 -0.24317 255 255 255
4.58251 -21.1288 -23.2514 255 255 255
-3.6076 64.2346 -0.153365 255 255 255
-3.1591 59.4839 -0.187927 255 255 255
4.78932 -47.0375 -15.007 255 255 255
22.7223 -56.4413 0.865548 255 255 255
3.82552 80.4686 -56.2244 255 255 255
-6.41806 -25.9554 -8.00693 255 255 255
16.7089 -34.0027 -3.43271 255 255 255
1.55949 -4.27867 -0.54682 255 255 255
4.67465 2.98154 2.03956 255 255 255
2.75593 -8.29875 -0.071922 255 255 255
121.047 -1746.71 -2.22402 255 255 255
24.1453 -37.8531 -18.2982 255 255 255
15.4268 -287.42 0.502812 255 255 255
-4.39088 102.742 -0.178554 255 255 255
-8.56847 210.584 -0.372143 255 255 255
-2.26504 39.432 -0.11908 255 255 255
-1.23833 19.7414 -2.14986 255 255 255
1.75909 31.9363 -0.310484 255 255 255
15.5548 -16.045 -5.41553 255 255 255
-1365.37 16552.7 -52.9197 255 255 255
-34.3868 484.05 -1.47938 255 255 255
-5.88173 -10.0214 102.015 255 255 255
1.28759 6.96676 -0.497947 255 255 255
17.6846 -9.58062 -25.1021 255 255 255
11.1248 -49.3634 -6.68692 255 255 255
-37.8515 97.6205 -2.96325 255 255 255
-41.575 107.427 -1.85846 255 255 255
-85.0652 1369.79 -2.57865 255 255 255
-109.694 2035.39 -3.60511 255 255 255
12.2895 3.70751 -24.3053 255 255 255
-12.077 64.4246 -21.3042 255 255 255
-60.0125 1131.25 -1.95779 255 255 255
-139.31 3283.38 -5.62509 255 255 255
11.7449 -28.0445 -1.89507 255 255 255
-27.452 -2.85404 -14.44 255 255 255
284.357 -3261.95 -3.32815 255 255 255
-4.17572 145.403 28.7923 255 255 255
39.9041 161.287 -34.6324 255 255 255
25.4879 7.82394 -43.6379 255 255 255
-32.9205 568.096 -1.05504 255 255 255
9.4478 -10.2527 -10.6002 255 255 255
5.53419 -14.618 -1.18976 255 255 255
1.48254 31.8751 -23.7751 255 255 255
-4.98553 92.2406 -0.224184 255 255 255
59.3942 -172.738 -22.79 255 255 255
4.72536 -53.9545 -12.1229 255 255 255
-80.8067 -14.1834 -24.4996 255 255 255
22.2816 -26.1078 -22.4792 255 255 255
2.10168 64.9217 -39.6361 255 255 255
21.4277 -75.3538 -11.2045 255 255 255
-16.092 194.842 7.16859 255 255 255
-2.55803 44.9316 -3.30308 255 255 255
1.131 25.8307 -19.2833 255 255 255
-2.33634 29.7052 -0.101786 255 255 255
15.8425 -31.4787 -8.14205 255 255 255
13.7153 -31.2956 -4.62507 255 255 255
-10.8554 105.647 -0.354737 255 255 255
9.33857 141.166 -0.0762475 255 255 255
43.3116 494.922 -0.282359 255 255 255
-1.1594 17.9789 -0.0744315 255 255 255
-7.04126 141.649 -0.303663 255 255 255
-1.39802 23.1949 -0.091579 255 255 255
-3.47026 68.8524 -0.144171 255 255 255
27.278 -53.3556 -14.0599 255 255 255
-4.35687 88.8095 -0.154026 255 255 255
1.29372 -18.1877 -3.86189 255 255 255
-923.352 -9891.05 -6.3152 255 255 255
-309.548 -2996.27 86.1277 255 255 255
-44.6094 1299.83 -1.95937 255 255 255
-592.385 1263.89 213.763 255 255 255
-6793.07 -29078.9 -65.4549 255 255 255
-2000.6 4384.63 746.763 255 255 255
2157.23 5811.48 1770.36 255 255 255
-276.863 35964.5 373.612 255 255 255
-638.197 350.07 228.117 255 255 255
-614.741 793.123 13.1839 255 255 255
-11736.8 -13808.7 -5666.56 255 255 255
13026.9 17737.2 -30785 255 255 255
7924.33 -5449.61 -2871.88 255 255 255
-4120.51 -9593.98 -20130.5 255 255 255
-3184.58 478.365 -48.369 255 255 255
-1721.31 -17874.4 -4074.1 255 255 255
3775.83 27369.1 -29090.2 255 255 255
185.445 11448.7 -3.29303 255 255 255
-3655.06 -2178.9 -20739.5 255 255 255
4146.66 11657.6 58.4619 255 255 255
21.561 -1582.39 1.15204 255 255 255
269.974 -599.322 -60.9358 255 255 255
1370.46 -1136.87 99.0841 255 255 255
192.42 1911.01 -53.1609 255 255 255
93.945 -452.702 -69.5918 255 255 255
-2452.48 -21220 -24.6232 255 255 255
-1128.28 -7114.24 -12.841 255 255 255
19.9459 355.808 -4.35013 255 255 255
-178.583 361.059 65.9484 255 255 255
30151.7 9936.81 -497.091 255 255 255
3.01567 -59.3207 0.354808 255 255 255
0.273729 110.022 0.748586 255 255 255
1213.47 -4456.91 20.976 255 255 255
-74.1795 1203.24 228.461 255 255 255
-673.655 986.742 38.0989 255 255 255
-5.99612 1178.84 239.574 255 255 255
-269.367 4002.89 -6.30235 255 255 255
63.1617 205.314 57.4311 255 255 255
-1000.29 6355.08 988.187 255 255 255
